ply
format ascii 1.0
element vertex 683
property double x
property double y
property double z
property ushort red
property ushort green
property ushort blue
property ushort intensity
end_header
-0.286000000000000 -0.289000000000000 -2.250000000000000 0 255 233 35
-0.413000000000000 -0.294000000000000 -2.337000000000000 0 238 255 28
-0.370000000000000 -0.292000000000000 -2.337000000000000 0 229 255 27
-0.318000000000000 -0.281000000000000 -2.268000000000000 0 255 225 37
-0.275000000000000 -0.277000000000000 -2.246000000000000 0 255 72 73
-0.401000000000000 -0.282000000000000 -2.339000000000000 0 229 255 27
-0.357000000000000 -0.279000000000000 -2.329000000000000 0 212 255 25
-0.309000000000000 -0.271000000000000 -2.279000000000000 0 255 242 33
-0.263000000000000 -0.264000000000000 -2.238000000000000 0 255 25 84
-0.390000000000000 -0.270000000000000 -2.343000000000000 0 195 255 23
-0.347000000000000 -0.268000000000000 -2.338000000000000 0 221 255 26
-0.303000000000000 -0.264000000000000 -2.322000000000000 0 255 255 30
-0.255000000000000 -0.255000000000000 -2.256000000000000 0 255 131 59
-0.378000000000000 -0.258000000000000 -2.341000000000000 0 204 255 24
-0.336000000000000 -0.256000000000000 -2.342000000000000 0 255 255 30
-0.294000000000000 -0.254000000000000 -2.339000000000000 0 246 255 29
-0.250000000000000 -0.250000000000000 -2.325000000000000 0 136 255 16
-0.407000000000000 -0.247000000000000 -2.335000000000000 0 255 242 33
-0.366000000000000 -0.246000000000000 -2.340000000000000 0 212 255 25
-0.324000000000000 -0.244000000000000 -2.341000000000000 0 229 255 27
-0.282000000000000 -0.242000000000000 -2.337000000000000 0 255 255 30
-0.242000000000000 -0.242000000000000 -2.349000000000000 0 255 238 34
-0.394000000000000 -0.235000000000000 -2.333000000000000 0 255 246 32
-0.354000000000000 -0.234000000000000 -2.342000000000000 0 212 255 25
-0.312000000000000 -0.233000000000000 -2.343000000000000 0 255 255 30
-0.270000000000000 -0.231000000000000 -2.338000000000000 0 246 255 29
-0.231000000000000 -0.231000000000000 -2.353000000000000 0 255 250 31
-0.382000000000000 -0.224000000000000 -2.337000000000000 0 255 246 32
-0.341000000000000 -0.223000000000000 -2.343000000000000 0 212 255 25
-0.300000000000000 -0.221000000000000 -2.343000000000000 0 255 255 30
-0.258000000000000 -0.219000000000000 -2.339000000000000 0 255 255 30
-0.218000000000000 -0.219000000000000 -2.348000000000000 0 255 238 34
-0.411000000000000 -0.214000000000000 -2.331000000000000 0 212 255 25
-0.370000000000000 -0.213000000000000 -2.338000000000000 0 255 242 33
-0.136000000000000 -0.221000000000000 -2.322000000000000 0 221 255 26
-0.102000000000000 -0.226000000000000 -2.345000000000000 0 255 250 31
-0.141000000000000 -0.236000000000000 -2.324000000000000 0 221 255 26
-0.106000000000000 -0.240000000000000 -2.332000000000000 0 255 250 31
-0.146000000000000 -0.252000000000000 -2.326000000000000 0 212 255 25
-0.112000000000000 -0.257000000000000 -2.340000000000000 0 255 250 31
-0.151000000000000 -0.268000000000000 -2.324000000000000 0 212 255 25
-0.117000000000000 -0.272000000000000 -2.339000000000000 0 255 250 31
-0.155000000000000 -0.280000000000000 -2.301000000000000 0 127 255 15
-0.122000000000000 -0.286000000000000 -2.327000000000000 0 255 246 32
-0.156000000000000 -0.288000000000000 -2.239000000000000 0 255 106 65
-0.127000000000000 -0.303000000000000 -2.333000000000000 0 255 238 34
-0.162000000000000 -0.303000000000000 -2.239000000000000 0 255 114 63
-0.130000000000000 -0.310000000000000 -2.273000000000000 0 212 255 25
-0.167000000000000 -0.317000000000000 -2.236000000000000 0 255 157 53
-0.134000000000000 -0.321000000000000 -2.241000000000000 0 255 114 63
-0.104000000000000 -0.337000000000000 -2.333000000000000 0 204 255 24
-0.173000000000000 -0.332000000000000 -2.237000000000000 0 255 191 45
-0.140000000000000 -0.336000000000000 -2.241000000000000 0 255 114 63
-0.110000000000000 -0.352000000000000 -2.332000000000000 0 221 255 26
-0.179000000000000 -0.345000000000000 -2.224000000000000 0 255 127 60
-0.146000000000000 -0.350000000000000 -2.238000000000000 0 255 114 63
-0.114000000000000 -0.359000000000000 -2.276000000000000 0 195 255 23
-0.185000000000000 -0.360000000000000 -2.223000000000000 0 255 165 51
-0.152000000000000 -0.365000000000000 -2.236000000000000 0 255 170 50
-0.119000000000000 -0.371000000000000 -2.255000000000000 0 255 225 37
-0.191000000000000 -0.374000000000000 -2.220000000000000 0 255 170 50
-0.158000000000000 -0.379000000000000 -2.233000000000000 0 255 157 53
-0.126000000000000 -0.386000000000000 -2.256000000000000 0 255 191 45
-0.198000000000000 -0.389000000000000 -2.223000000000000 0 255 195 44
-0.165000000000000 -0.394000000000000 -2.235000000000000 0 255 178 48
-0.133000000000000 -0.400000000000000 -2.253000000000000 0 255 182 47
-0.102000000000000 -0.417000000000000 -2.334000000000000 0 212 255 25
-0.205000000000000 -0.403000000000000 -2.222000000000000 0 255 191 45
-0.173000000000000 -0.409000000000000 -2.241000000000000 0 255 174 49
-0.140000000000000 -0.415000000000000 -2.255000000000000 0 255 187 46
-0.110000000000000 -0.432000000000000 -2.329000000000000 0 229 255 27
-0.212000000000000 -0.418000000000000 -2.224000000000000 0 255 199 43
-0.180000000000000 -0.423000000000000 -2.238000000000000 0 255 178 48
-0.147000000000000 -0.429000000000000 -2.255000000000000 0 255 195 44
-0.117000000000000 -0.447000000000000 -2.332000000000000 0 246 255 29
-0.220000000000000 -0.433000000000000 -2.226000000000000 0 255 229 36
-0.187000000000000 -0.439000000000000 -2.243000000000000 0 255 199 43
-0.154000000000000 -0.444000000000000 -2.253000000000000 0 255 212 40
-0.125000000000000 -0.461000000000000 -2.328000000000000 0 238 255 28
-0.228000000000000 -0.449000000000000 -2.233000000000000 0 255 225 37
-0.195000000000000 -0.454000000000000 -2.246000000000000 0 255 199 43
-0.162000000000000 -0.458000000000000 -2.254000000000000 0 255 233 35
-0.133000000000000 -0.477000000000000 -2.329000000000000 0 238 255 28
-0.237000000000000 -0.465000000000000 -2.242000000000000 0 255 204 42
-0.203000000000000 -0.468000000000000 -2.244000000000000 0 255 174 49
-0.173000000000000 -0.481000000000000 -2.295000000000000 0 255 250 31
-0.141000000000000 -0.492000000000000 -2.331000000000000 0 246 255 29
-0.106000000000000 -0.493000000000000 -2.322000000000000 0 229 255 27
-0.244000000000000 -0.479000000000000 -2.239000000000000 0 255 195 44
-0.211000000000000 -0.482000000000000 -2.243000000000000 0 255 174 49
-0.184000000000000 -0.503000000000000 -2.328000000000000 0 229 255 27
-0.149000000000000 -0.507000000000000 -2.331000000000000 0 255 255 30
-0.114000000000000 -0.508000000000000 -2.323000000000000 0 238 255 28
-0.262000000000000 -0.510000000000000 -2.318000000000000 0 255 250 31
-0.227000000000000 -0.515000000000000 -2.325000000000000 0 255 216 39
-0.192000000000000 -0.518000000000000 -2.328000000000000 0 246 255 29
-0.158000000000000 -0.523000000000000 -2.336000000000000 0 246 255 29
-0.122000000000000 -0.523000000000000 -2.323000000000000 0 246 255 29
-0.270000000000000 -0.525000000000000 -2.315000000000000 0 238 255 28
-0.235000000000000 -0.529000000000000 -2.319000000000000 0 255 221 38
-0.201000000000000 -0.533000000000000 -2.329000000000000 0 255 255 30
-0.166000000000000 -0.535000000000000 -2.326000000000000 0 255 255 30
-0.131000000000000 -0.537000000000000 -2.322000000000000 0 246 255 29
-0.280000000000000 -0.542000000000000 -2.322000000000000 0 238 255 28
-0.245000000000000 -0.544000000000000 -2.323000000000000 0 255 229 36
-0.140000000000000 -0.536000000000000 -2.312000000000000 0 229 255 27
-0.103000000000000 -0.534000000000000 -2.323000000000000 0 255 242 33
-0.142000000000000 -0.520000000000000 -2.315000000000000 0 221 255 26
-0.104000000000000 -0.516000000000000 -2.318000000000000 0 255 242 33
-0.143000000000000 -0.503000000000000 -2.315000000000000 0 221 255 26
-0.106000000000000 -0.500000000000000 -2.325000000000000 0 255 233 35
-0.143000000000000 -0.482000000000000 -2.297000000000000 0 212 255 25
-0.107000000000000 -0.483000000000000 -2.322000000000000 0 255 250 31
-0.144000000000000 -0.466000000000000 -2.300000000000000 0 212 255 25
-0.109000000000000 -0.467000000000000 -2.326000000000000 0 255 250 31
-0.142000000000000 -0.440000000000000 -2.250000000000000 0 238 255 28
-0.109000000000000 -0.449000000000000 -2.324000000000000 0 255 242 33
-0.142000000000000 -0.420000000000000 -2.236000000000000 0 255 199 43
-0.110000000000000 -0.433000000000000 -2.327000000000000 0 255 250 31
-0.142000000000000 -0.405000000000000 -2.239000000000000 0 255 204 42
-0.111000000000000 -0.417000000000000 -2.329000000000000 0 255 250 31
-0.142000000000000 -0.389000000000000 -2.238000000000000 0 255 195 44
-0.111000000000000 -0.400000000000000 -2.329000000000000 0 255 250 31
-0.142000000000000 -0.372000000000000 -2.238000000000000 0 255 199 43
-0.111000000000000 -0.383000000000000 -2.329000000000000 0 255 255 30
-0.142000000000000 -0.357000000000000 -2.241000000000000 0 255 182 47
-0.111000000000000 -0.366000000000000 -2.330000000000000 0 255 250 31
-0.142000000000000 -0.340000000000000 -2.238000000000000 0 255 182 47
-0.110000000000000 -0.350000000000000 -2.334000000000000 0 255 255 30
-0.141000000000000 -0.324000000000000 -2.240000000000000 0 255 165 51
-0.110000000000000 -0.334000000000000 -2.336000000000000 0 255 250 31
-0.140000000000000 -0.308000000000000 -2.240000000000000 0 255 170 50
-0.109000000000000 -0.317000000000000 -2.333000000000000 0 255 250 31
-0.142000000000000 -0.298000000000000 -2.287000000000000 0 127 255 15
-0.108000000000000 -0.301000000000000 -2.337000000000000 0 255 250 31
-0.143000000000000 -0.286000000000000 -2.322000000000000 0 204 255 24
-0.107000000000000 -0.284000000000000 -2.336000000000000 0 255 255 30
-0.142000000000000 -0.270000000000000 -2.321000000000000 0 195 255 23
-0.105000000000000 -0.267000000000000 -2.335000000000000 0 255 255 30
-0.140000000000000 -0.252000000000000 -2.317000000000000 0 178 255 21
-0.103000000000000 -0.250000000000000 -2.329000000000000 0 246 255 29
-0.139000000000000 -0.237000000000000 -2.324000000000000 0 195 255 23
-0.102000000000000 -0.235000000000000 -2.338000000000000 0 246 255 29
-0.136000000000000 -0.220000000000000 -2.324000000000000 0 195 255 23
-0.219000000000000 -0.213000000000000 -2.318000000000000 0 246 255 29
-0.185000000000000 -0.216000000000000 -2.331000000000000 0 255 238 34
-0.152000000000000 -0.219000000000000 -2.340000000000000 0 229 255 27
-0.118000000000000 -0.221000000000000 -2.347000000000000 0 229 255 27
-0.228000000000000 -0.226000000000000 -2.316000000000000 0 238 255 28
-0.195000000000000 -0.229000000000000 -2.329000000000000 0 255 225 37
-0.162000000000000 -0.232000000000000 -2.343000000000000 0 229 255 27
-0.128000000000000 -0.235000000000000 -2.346000000000000 0 229 255 27
-0.239000000000000 -0.240000000000000 -2.321000000000000 0 255 250 31
-0.206000000000000 -0.243000000000000 -2.340000000000000 0 255 233 35
-0.172000000000000 -0.246000000000000 -2.343000000000000 0 229 255 27
-0.138000000000000 -0.247000000000000 -2.342000000000000 0 221 255 26
-0.104000000000000 -0.249000000000000 -2.339000000000000 0 238 255 28
-0.248000000000000 -0.250000000000000 -2.310000000000000 0 136 255 16
-0.216000000000000 -0.255000000000000 -2.331000000000000 0 178 255 21
-0.182000000000000 -0.258000000000000 -2.333000000000000 0 255 255 30
-0.148000000000000 -0.260000000000000 -2.342000000000000 0 238 255 28
-0.114000000000000 -0.261000000000000 -2.334000000000000 0 221 255 26
-0.250000000000000 -0.256000000000000 -2.239000000000000 0 255 144 56
-0.218000000000000 -0.258000000000000 -2.241000000000000 0 255 59 76
-0.187000000000000 -0.263000000000000 -2.265000000000000 0 255 255 30
-0.159000000000000 -0.274000000000000 -2.348000000000000 0 255 250 31
-0.125000000000000 -0.275000000000000 -2.339000000000000 0 238 255 28
-0.260000000000000 -0.268000000000000 -2.230000000000000 0 255 51 78
-0.228000000000000 -0.270000000000000 -2.238000000000000 0 255 51 78
-0.196000000000000 -0.273000000000000 -2.248000000000000 0 255 93 68
-0.164000000000000 -0.276000000000000 -2.262000000000000 0 255 229 36
-0.135000000000000 -0.287000000000000 -2.333000000000000 0 238 255 28
-0.102000000000000 -0.291000000000000 -2.350000000000000 0 255 255 30
-0.272000000000000 -0.282000000000000 -2.242000000000000 0 255 195 44
-0.238000000000000 -0.283000000000000 -2.240000000000000 0 255 204 42
-0.206000000000000 -0.286000000000000 -2.251000000000000 0 255 187 46
-0.175000000000000 -0.289000000000000 -2.266000000000000 0 255 114 63
-0.143000000000000 -0.293000000000000 -2.285000000000000 0 170 255 20
-0.113000000000000 -0.303000000000000 -2.349000000000000 0 255 250 31
-0.283000000000000 -0.294000000000000 -2.247000000000000 0 238 255 28
-0.249000000000000 -0.295000000000000 -2.240000000000000 0 255 161 52
-0.217000000000000 -0.298000000000000 -2.250000000000000 0 255 195 44
-0.185000000000000 -0.301000000000000 -2.264000000000000 0 255 153 54
-0.151000000000000 -0.300000000000000 -2.246000000000000 0 255 123 61
-0.124000000000000 -0.316000000000000 -2.351000000000000 0 255 225 37
-0.292000000000000 -0.305000000000000 -2.237000000000000 0 255 250 31
-0.259000000000000 -0.306000000000000 -2.235000000000000 0 255 170 50
-0.227000000000000 -0.308000000000000 -2.243000000000000 0 255 182 47
-0.196000000000000 -0.312000000000000 -2.260000000000000 0 255 178 48
-0.162000000000000 -0.312000000000000 -2.247000000000000 0 255 106 65
-0.130000000000000 -0.315000000000000 -2.260000000000000 0 255 199 43
-0.304000000000000 -0.318000000000000 -2.241000000000000 0 255 250 31
-0.269000000000000 -0.317000000000000 -2.229000000000000 0 255 93 68
-0.237000000000000 -0.319000000000000 -2.236000000000000 0 255 199 43
-0.206000000000000 -0.323000000000000 -2.250000000000000 0 255 136 58
-0.173000000000000 -0.324000000000000 -2.250000000000000 0 255 165 51
-0.141000000000000 -0.325000000000000 -2.248000000000000 0 255 63 75
-0.316000000000000 -0.331000000000000 -2.248000000000000 0 246 255 29
-0.280000000000000 -0.329000000000000 -2.229000000000000 0 255 110 64
-0.248000000000000 -0.331000000000000 -2.235000000000000 0 255 208 41
-0.217000000000000 -0.335000000000000 -2.251000000000000 0 255 182 47
-0.184000000000000 -0.334000000000000 -2.237000000000000 0 255 119 62
-0.152000000000000 -0.336000000000000 -2.242000000000000 0 255 51 78
-0.326000000000000 -0.341000000000000 -2.239000000000000 0 255 174 49
-0.292000000000000 -0.341000000000000 -2.229000000000000 0 255 119 62
-0.259000000000000 -0.342000000000000 -2.232000000000000 0 255 229 36
-0.228000000000000 -0.345000000000000 -2.245000000000000 0 255 216 39
-0.194000000000000 -0.345000000000000 -2.233000000000000 0 255 136 58
-0.163000000000000 -0.349000000000000 -2.249000000000000 0 255 140 57
-0.337000000000000 -0.352000000000000 -2.234000000000000 0 255 102 66
-0.305000000000000 -0.354000000000000 -2.242000000000000 0 255 204 42
-0.271000000000000 -0.354000000000000 -2.233000000000000 0 255 225 37
-0.239000000000000 -0.356000000000000 -2.243000000000000 0 255 221 38
-0.206000000000000 -0.356000000000000 -2.233000000000000 0 255 221 38
-0.174000000000000 -0.359000000000000 -2.242000000000000 0 255 89 69
-0.349000000000000 -0.364000000000000 -2.235000000000000 0 255 157 53
-0.317000000000000 -0.366000000000000 -2.244000000000000 0 255 212 40
-0.283000000000000 -0.365000000000000 -2.234000000000000 0 255 174 49
-0.250000000000000 -0.367000000000000 -2.240000000000000 0 255 225 37
-0.217000000000000 -0.367000000000000 -2.229000000000000 0 255 204 42
-0.186000000000000 -0.370000000000000 -2.241000000000000 0 255 131 59
-0.373000000000000 -0.389000000000000 -2.313000000000000 0 246 255 29
-0.329000000000000 -0.378000000000000 -2.247000000000000 0 255 170 50
-0.295000000000000 -0.378000000000000 -2.242000000000000 0 255 161 52
-0.262000000000000 -0.378000000000000 -2.236000000000000 0 255 225 37
-0.229000000000000 -0.378000000000000 -2.234000000000000 0 255 212 40
-0.198000000000000 -0.381000000000000 -2.242000000000000 0 255 157 53
-0.388000000000000 -0.402000000000000 -2.324000000000000 0 246 255 29
-0.341000000000000 -0.389000000000000 -2.243000000000000 0 255 106 65
-0.308000000000000 -0.390000000000000 -2.248000000000000 0 255 250 31
-0.274000000000000 -0.389000000000000 -2.236000000000000 0 255 204 42
-0.241000000000000 -0.389000000000000 -2.230000000000000 0 255 221 38
-0.210000000000000 -0.391000000000000 -2.239000000000000 0 255 187 46
-0.399000000000000 -0.413000000000000 -2.318000000000000 0 255 255 30
-0.360000000000000 -0.408000000000000 -2.285000000000000 0 255 204 42
-0.321000000000000 -0.402000000000000 -2.250000000000000 0 255 233 35
-0.287000000000000 -0.401000000000000 -2.242000000000000 0 255 161 52
-0.252000000000000 -0.400000000000000 -2.230000000000000 0 255 216 39
-0.221000000000000 -0.401000000000000 -2.236000000000000 0 255 191 45
-0.414000000000000 -0.427000000000000 -2.329000000000000 0 255 250 31
-0.379000000000000 -0.426000000000000 -2.323000000000000 0 255 238 34
-0.334000000000000 -0.413000000000000 -2.252000000000000 0 255 178 48
-0.301000000000000 -0.415000000000000 -2.258000000000000 0 255 250 31
-0.265000000000000 -0.410000000000000 -2.227000000000000 0 255 161 52
-0.234000000000000 -0.412000000000000 -2.236000000000000 0 255 170 50
-0.393000000000000 -0.439000000000000 -2.331000000000000 0 255 221 38
-0.352000000000000 -0.431000000000000 -2.289000000000000 0 255 225 37
-0.316000000000000 -0.428000000000000 -2.268000000000000 0 255 208 41
-0.278000000000000 -0.421000000000000 -2.229000000000000 0 255 182 47
-0.246000000000000 -0.422000000000000 -2.236000000000000 0 255 144 56
-0.406000000000000 -0.450000000000000 -2.330000000000000 0 255 216 39
-0.372000000000000 -0.451000000000000 -2.334000000000000 0 238 255 28
-0.330000000000000 -0.440000000000000 -2.278000000000000 0 255 178 48
-0.294000000000000 -0.437000000000000 -2.258000000000000 0 255 225 37
-0.261000000000000 -0.436000000000000 -2.256000000000000 0 255 161 52
-0.385000000000000 -0.461000000000000 -2.330000000000000 0 238 255 28
-0.348000000000000 -0.458000000000000 -2.317000000000000 0 246 255 29
-0.307000000000000 -0.447000000000000 -2.258000000000000 0 255 187 46
-0.275000000000000 -0.449000000000000 -2.265000000000000 0 255 208 41
-0.399000000000000 -0.472000000000000 -2.334000000000000 0 255 255 30
-0.365000000000000 -0.473000000000000 -2.335000000000000 0 246 255 29
-0.322000000000000 -0.460000000000000 -2.274000000000000 0 255 182 47
-0.289000000000000 -0.461000000000000 -2.274000000000000 0 255 140 57
-0.412000000000000 -0.482000000000000 -2.329000000000000 0 255 250 31
-0.379000000000000 -0.483000000000000 -2.336000000000000 0 246 255 29
-0.343000000000000 -0.482000000000000 -2.329000000000000 0 221 255 26
-0.302000000000000 -0.470000000000000 -2.273000000000000 0 255 127 60
-0.393000000000000 -0.494000000000000 -2.337000000000000 0 255 250 31
-0.356000000000000 -0.491000000000000 -2.325000000000000 0 229 255 27
-0.325000000000000 -0.494000000000000 -2.341000000000000 0 255 229 36
-0.406000000000000 -0.504000000000000 -2.335000000000000 0 255 255 30
-0.371000000000000 -0.501000000000000 -2.328000000000000 0 255 255 30
-0.338000000000000 -0.504000000000000 -2.340000000000000 0 255 233 35
-0.384000000000000 -0.510000000000000 -2.324000000000000 0 255 250 31
-0.352000000000000 -0.513000000000000 -2.337000000000000 0 255 242 33
-0.399000000000000 -0.521000000000000 -2.328000000000000 0 255 246 32
-0.367000000000000 -0.523000000000000 -2.340000000000000 0 255 233 35
-0.413000000000000 -0.530000000000000 -2.323000000000000 0 255 255 30
-0.381000000000000 -0.533000000000000 -2.339000000000000 0 255 221 38
-0.396000000000000 -0.542000000000000 -2.342000000000000 0 255 225 37
-0.210000000000000 -0.545000000000000 -2.327000000000000 0 229 255 27
-0.170000000000000 -0.537000000000000 -2.317000000000000 0 229 255 27
-0.131000000000000 -0.536000000000000 -2.329000000000000 0 255 250 31
-0.327000000000000 -0.540000000000000 -2.314000000000000 0 204 255 24
-0.287000000000000 -0.536000000000000 -2.319000000000000 0 255 238 34
-0.247000000000000 -0.533000000000000 -2.326000000000000 0 229 255 27
-0.207000000000000 -0.529000000000000 -2.330000000000000 0 238 255 28
-0.167000000000000 -0.522000000000000 -2.321000000000000 0 229 255 27
-0.128000000000000 -0.520000000000000 -2.331000000000000 0 238 255 28
-0.323000000000000 -0.524000000000000 -2.317000000000000 0 238 255 28
-0.283000000000000 -0.519000000000000 -2.317000000000000 0 255 246 32
-0.244000000000000 -0.516000000000000 -2.326000000000000 0 246 255 29
-0.204000000000000 -0.512000000000000 -2.332000000000000 0 246 255 29
-0.164000000000000 -0.505000000000000 -2.323000000000000 0 221 255 26
-0.125000000000000 -0.503000000000000 -2.332000000000000 0 238 255 28
-0.320000000000000 -0.509000000000000 -2.323000000000000 0 221 255 26
-0.271000000000000 -0.487000000000000 -2.249000000000000 0 255 199 43
-0.232000000000000 -0.482000000000000 -2.249000000000000 0 255 233 35
-0.196000000000000 -0.483000000000000 -2.273000000000000 0 255 238 34
-0.161000000000000 -0.490000000000000 -2.325000000000000 0 212 255 25
-0.122000000000000 -0.487000000000000 -2.335000000000000 0 255 255 30
-0.311000000000000 -0.482000000000000 -2.279000000000000 0 255 255 30
-0.266000000000000 -0.469000000000000 -2.239000000000000 0 255 182 47
-0.228000000000000 -0.466000000000000 -2.248000000000000 0 255 246 32
-0.191000000000000 -0.465000000000000 -2.264000000000000 0 255 221 38
-0.155000000000000 -0.468000000000000 -2.301000000000000 0 229 255 27
-0.118000000000000 -0.470000000000000 -2.332000000000000 0 229 255 27
-0.301000000000000 -0.457000000000000 -2.236000000000000 0 255 216 39
-0.262000000000000 -0.453000000000000 -2.239000000000000 0 255 204 42
-0.224000000000000 -0.449000000000000 -2.244000000000000 0 255 250 31
-0.187000000000000 -0.449000000000000 -2.264000000000000 0 246 255 29
-0.149000000000000 -0.444000000000000 -2.258000000000000 0 255 233 35
-0.114000000000000 -0.454000000000000 -2.332000000000000 0 246 255 29
-0.297000000000000 -0.442000000000000 -2.240000000000000 0 255 216 39
-0.258000000000000 -0.436000000000000 -2.237000000000000 0 255 208 41
-0.220000000000000 -0.433000000000000 -2.243000000000000 0 255 229 36
-0.181000000000000 -0.428000000000000 -2.240000000000000 0 255 229 36
-0.143000000000000 -0.424000000000000 -2.239000000000000 0 255 208 41
-0.110000000000000 -0.438000000000000 -2.335000000000000 0 229 255 27
-0.293000000000000 -0.425000000000000 -2.239000000000000 0 246 255 29
-0.252000000000000 -0.418000000000000 -2.222000000000000 0 255 178 48
-0.215000000000000 -0.417000000000000 -2.239000000000000 0 255 233 35
-0.178000000000000 -0.413000000000000 -2.243000000000000 0 255 229 36
-0.140000000000000 -0.409000000000000 -2.243000000000000 0 255 204 42
-0.106000000000000 -0.423000000000000 -2.339000000000000 0 238 255 28
-0.286000000000000 -0.407000000000000 -2.224000000000000 0 255 187 46
-0.247000000000000 -0.402000000000000 -2.221000000000000 0 255 216 39
-0.210000000000000 -0.400000000000000 -2.232000000000000 0 255 225 37
-0.173000000000000 -0.398000000000000 -2.243000000000000 0 255 233 35
-0.135000000000000 -0.394000000000000 -2.243000000000000 0 255 187 46
-0.102000000000000 -0.407000000000000 -2.338000000000000 0 229 255 27
-0.280000000000000 -0.390000000000000 -2.216000000000000 0 255 191 45
-0.243000000000000 -0.386000000000000 -2.222000000000000 0 255 199 43
-0.206000000000000 -0.384000000000000 -2.229000000000000 0 255 246 32
-0.169000000000000 -0.383000000000000 -2.249000000000000 0 255 221 38
-0.131000000000000 -0.379000000000000 -2.246000000000000 0 255 187 46
-0.276000000000000 -0.374000000000000 -2.217000000000000 0 255 233 35
-0.238000000000000 -0.371000000000000 -2.221000000000000 0 255 208 41
-0.201000000000000 -0.369000000000000 -2.231000000000000 0 255 233 35
-0.165000000000000 -0.368000000000000 -2.254000000000000 0 255 208 41
-0.127000000000000 -0.364000000000000 -2.249000000000000 0 255 182 47
-0.271000000000000 -0.359000000000000 -2.219000000000000 0 255 246 32
-0.233000000000000 -0.356000000000000 -2.222000000000000 0 255 199 43
-0.196000000000000 -0.354000000000000 -2.236000000000000 0 255 178 48
-0.160000000000000 -0.354000000000000 -2.256000000000000 0 255 208 41
-0.122000000000000 -0.349000000000000 -2.249000000000000 0 255 250 31
-0.266000000000000 -0.344000000000000 -2.221000000000000 0 255 250 31
-0.228000000000000 -0.341000000000000 -2.228000000000000 0 255 199 43
-0.192000000000000 -0.340000000000000 -2.242000000000000 0 255 174 49
-0.155000000000000 -0.339000000000000 -2.260000000000000 0 255 165 51
-0.120000000000000 -0.343000000000000 -2.314000000000000 0 170 255 20
-0.260000000000000 -0.328000000000000 -2.220000000000000 0 255 204 42
-0.223000000000000 -0.326000000000000 -2.231000000000000 0 255 136 58
-0.187000000000000 -0.325000000000000 -2.248000000000000 0 255 208 41
-0.150000000000000 -0.324000000000000 -2.264000000000000 0 255 170 50
-0.116000000000000 -0.330000000000000 -2.334000000000000 0 204 255 24
-0.256000000000000 -0.315000000000000 -2.231000000000000 0 255 199 43
-0.218000000000000 -0.312000000000000 -2.236000000000000 0 255 119 62
-0.181000000000000 -0.310000000000000 -2.249000000000000 0 255 195 44
-0.145000000000000 -0.309000000000000 -2.265000000000000 0 255 170 50
-0.110000000000000 -0.315000000000000 -2.335000000000000 0 212 255 25
-0.250000000000000 -0.300000000000000 -2.236000000000000 0 255 250 31
-0.213000000000000 -0.297000000000000 -2.241000000000000 0 255 182 47
-0.176000000000000 -0.295000000000000 -2.252000000000000 0 255 157 53
-0.142000000000000 -0.300000000000000 -2.318000000000000 0 153 255 18
-0.104000000000000 -0.299000000000000 -2.335000000000000 0 204 255 24
-0.245000000000000 -0.286000000000000 -2.240000000000000 0 255 238 34
-0.207000000000000 -0.283000000000000 -2.243000000000000 0 255 144 56
-0.170000000000000 -0.281000000000000 -2.255000000000000 0 255 157 53
-0.138000000000000 -0.288000000000000 -2.342000000000000 0 212 255 25
-0.237000000000000 -0.269000000000000 -2.229000000000000 0 255 140 57
-0.201000000000000 -0.267000000000000 -2.242000000000000 0 255 63 75
-0.170000000000000 -0.274000000000000 -2.328000000000000 0 153 255 18
-0.131000000000000 -0.272000000000000 -2.340000000000000 0 204 255 24
-0.232000000000000 -0.256000000000000 -2.241000000000000 0 255 157 53
-0.197000000000000 -0.255000000000000 -2.268000000000000 0 161 255 19
-0.164000000000000 -0.261000000000000 -2.344000000000000 0 195 255 23
-0.125000000000000 -0.257000000000000 -2.344000000000000 0 204 255 24
-0.233000000000000 -0.249000000000000 -2.314000000000000 0 170 255 20
-0.196000000000000 -0.248000000000000 -2.338000000000000 0 255 238 34
-0.157000000000000 -0.245000000000000 -2.342000000000000 0 212 255 25
-0.118000000000000 -0.242000000000000 -2.343000000000000 0 204 255 24
-0.227000000000000 -0.234000000000000 -2.317000000000000 0 212 255 25
-0.189000000000000 -0.233000000000000 -2.339000000000000 0 255 246 32
-0.151000000000000 -0.230000000000000 -2.343000000000000 0 212 255 25
-0.112000000000000 -0.227000000000000 -2.344000000000000 0 212 255 25
-0.220000000000000 -0.219000000000000 -2.319000000000000 0 212 255 25
-0.182000000000000 -0.217000000000000 -2.330000000000000 0 255 242 33
-0.144000000000000 -0.215000000000000 -2.346000000000000 0 204 255 24
-0.370000000000000 -0.217000000000000 -2.314000000000000 0 255 250 31
-0.339000000000000 -0.219000000000000 -2.337000000000000 0 255 221 38
-0.307000000000000 -0.220000000000000 -2.348000000000000 0 255 250 31
-0.272000000000000 -0.219000000000000 -2.346000000000000 0 255 246 32
-0.238000000000000 -0.219000000000000 -2.339000000000000 0 255 255 30
-0.206000000000000 -0.220000000000000 -2.356000000000000 0 255 221 38
-0.384000000000000 -0.225000000000000 -2.312000000000000 0 255 255 30
-0.354000000000000 -0.227000000000000 -2.338000000000000 0 255 212 40
-0.321000000000000 -0.227000000000000 -2.345000000000000 0 255 246 32
-0.287000000000000 -0.228000000000000 -2.351000000000000 0 255 242 33
-0.252000000000000 -0.226000000000000 -2.339000000000000 0 255 242 33
-0.220000000000000 -0.228000000000000 -2.351000000000000 0 255 225 37
-0.399000000000000 -0.233000000000000 -2.310000000000000 0 255 246 32
-0.368000000000000 -0.235000000000000 -2.335000000000000 0 255 221 38
-0.336000000000000 -0.236000000000000 -2.345000000000000 0 246 255 29
-0.301000000000000 -0.235000000000000 -2.340000000000000 0 255 242 33
-0.267000000000000 -0.235000000000000 -2.342000000000000 0 255 255 30
-0.235000000000000 -0.236000000000000 -2.355000000000000 0 255 229 36
-0.383000000000000 -0.243000000000000 -2.336000000000000 0 255 221 38
-0.350000000000000 -0.243000000000000 -2.343000000000000 0 238 255 28
-0.316000000000000 -0.243000000000000 -2.344000000000000 0 255 246 32
-0.282000000000000 -0.242000000000000 -2.340000000000000 0 255 242 33
-0.250000000000000 -0.243000000000000 -2.353000000000000 0 255 225 37
-0.399000000000000 -0.250000000000000 -2.336000000000000 0 255 221 38
-0.365000000000000 -0.250000000000000 -2.342000000000000 0 255 255 30
-0.331000000000000 -0.250000000000000 -2.343000000000000 0 246 255 29
-0.296000000000000 -0.249000000000000 -2.338000000000000 0 255 246 32
-0.264000000000000 -0.250000000000000 -2.350000000000000 0 255 216 39
-0.413000000000000 -0.259000000000000 -2.335000000000000 0 255 204 42
-0.380000000000000 -0.258000000000000 -2.340000000000000 0 246 255 29
-0.345000000000000 -0.257000000000000 -2.337000000000000 0 246 255 29
-0.311000000000000 -0.256000000000000 -2.335000000000000 0 255 250 31
-0.279000000000000 -0.257000000000000 -2.350000000000000 0 255 204 42
-0.395000000000000 -0.266000000000000 -2.340000000000000 0 229 255 27
-0.361000000000000 -0.265000000000000 -2.340000000000000 0 229 255 27
-0.326000000000000 -0.264000000000000 -2.338000000000000 0 255 242 33
-0.294000000000000 -0.264000000000000 -2.347000000000000 0 255 204 42
-0.411000000000000 -0.273000000000000 -2.342000000000000 0 255 255 30
-0.376000000000000 -0.272000000000000 -2.342000000000000 0 229 255 27
-0.341000000000000 -0.270000000000000 -2.334000000000000 0 238 255 28
-0.309000000000000 -0.271000000000000 -2.348000000000000 0 255 208 41
-0.391000000000000 -0.279000000000000 -2.341000000000000 0 246 255 29
-0.356000000000000 -0.277000000000000 -2.334000000000000 0 246 255 29
-0.324000000000000 -0.277000000000000 -2.348000000000000 0 255 233 35
-0.407000000000000 -0.285000000000000 -2.338000000000000 0 255 255 30
-0.371000000000000 -0.283000000000000 -2.332000000000000 0 246 255 29
-0.339000000000000 -0.283000000000000 -2.342000000000000 0 255 242 33
-0.387000000000000 -0.290000000000000 -2.335000000000000 0 255 250 31
-0.354000000000000 -0.289000000000000 -2.341000000000000 0 255 229 36
-0.402000000000000 -0.296000000000000 -2.333000000000000 0 255 246 32
-0.371000000000000 -0.296000000000000 -2.348000000000000 0 255 229 36
-0.386000000000000 -0.302000000000000 -2.345000000000000 0 255 233 35
-0.402000000000000 -0.307000000000000 -2.344000000000000 0 255 233 35
-0.383000000000000 -0.536000000000000 -2.317000000000000 0 246 255 29
-0.342000000000000 -0.535000000000000 -2.330000000000000 0 255 246 32
-0.376000000000000 -0.521000000000000 -2.321000000000000 0 255 255 30
-0.336000000000000 -0.520000000000000 -2.334000000000000 0 255 246 32
-0.413000000000000 -0.512000000000000 -2.329000000000000 0 255 255 30
-0.369000000000000 -0.505000000000000 -2.320000000000000 0 238 255 28
-0.329000000000000 -0.504000000000000 -2.333000000000000 0 255 255 30
-0.405000000000000 -0.496000000000000 -2.327000000000000 0 246 255 29
-0.362000000000000 -0.491000000000000 -2.325000000000000 0 221 255 26
-0.317000000000000 -0.483000000000000 -2.304000000000000 0 255 221 38
-0.398000000000000 -0.481000000000000 -2.331000000000000 0 255 255 30
-0.354000000000000 -0.474000000000000 -2.318000000000000 0 212 255 25
-0.305000000000000 -0.461000000000000 -2.269000000000000 0 255 165 51
-0.390000000000000 -0.465000000000000 -2.330000000000000 0 246 255 29
-0.341000000000000 -0.452000000000000 -2.284000000000000 0 255 225 37
-0.295000000000000 -0.443000000000000 -2.253000000000000 0 255 170 50
-0.382000000000000 -0.450000000000000 -2.329000000000000 0 229 255 27
-0.327000000000000 -0.431000000000000 -2.247000000000000 0 255 170 50
-0.288000000000000 -0.428000000000000 -2.253000000000000 0 255 225 37
-0.374000000000000 -0.436000000000000 -2.333000000000000 0 238 255 28
-0.320000000000000 -0.417000000000000 -2.249000000000000 0 255 195 44
-0.277000000000000 -0.410000000000000 -2.230000000000000 0 255 136 58
-0.408000000000000 -0.425000000000000 -2.333000000000000 0 229 255 27
-0.358000000000000 -0.412000000000000 -2.283000000000000 0 255 221 38
-0.311000000000000 -0.402000000000000 -2.245000000000000 0 246 255 29
-0.270000000000000 -0.396000000000000 -2.231000000000000 0 255 165 51
-0.399000000000000 -0.410000000000000 -2.333000000000000 0 238 255 28
-0.347000000000000 -0.395000000000000 -2.270000000000000 0 255 165 51
-0.301000000000000 -0.385000000000000 -2.228000000000000 0 255 195 44
-0.262000000000000 -0.383000000000000 -2.234000000000000 0 255 216 39
-0.389000000000000 -0.394000000000000 -2.327000000000000 0 229 255 27
-0.337000000000000 -0.380000000000000 -2.262000000000000 0 255 187 46
-0.293000000000000 -0.371000000000000 -2.230000000000000 0 255 165 51
-0.254000000000000 -0.370000000000000 -2.238000000000000 0 255 208 41
-0.381000000000000 -0.380000000000000 -2.332000000000000 0 238 255 28
-0.327000000000000 -0.364000000000000 -2.254000000000000 0 255 255 30
-0.283000000000000 -0.356000000000000 -2.224000000000000 0 255 174 49
-0.245000000000000 -0.355000000000000 -2.232000000000000 0 255 191 45
-0.412000000000000 -0.368000000000000 -2.323000000000000 0 255 221 38
-0.360000000000000 -0.355000000000000 -2.262000000000000 0 255 242 33
-0.319000000000000 -0.351000000000000 -2.257000000000000 0 255 246 32
-0.275000000000000 -0.343000000000000 -2.224000000000000 0 255 174 49
-0.237000000000000 -0.342000000000000 -2.235000000000000 0 255 187 46
-0.404000000000000 -0.355000000000000 -2.331000000000000 0 255 225 37
-0.350000000000000 -0.340000000000000 -2.254000000000000 0 255 195 44
-0.308000000000000 -0.335000000000000 -2.240000000000000 0 255 238 34
-0.267000000000000 -0.331000000000000 -2.230000000000000 0 255 182 47
-0.228000000000000 -0.329000000000000 -2.238000000000000 0 255 153 54
-0.394000000000000 -0.340000000000000 -2.328000000000000 0 255 229 36
-0.339000000000000 -0.325000000000000 -2.244000000000000 0 255 148 55
-0.299000000000000 -0.321000000000000 -2.241000000000000 0 255 238 34
-0.259000000000000 -0.319000000000000 -2.241000000000000 0 255 195 44
-0.219000000000000 -0.316000000000000 -2.239000000000000 0 255 114 63
-0.384000000000000 -0.326000000000000 -2.327000000000000 0 255 238 34
-0.331000000000000 -0.313000000000000 -2.253000000000000 0 255 127 60
-0.290000000000000 -0.309000000000000 -2.245000000000000 0 255 233 35
-0.249000000000000 -0.305000000000000 -2.236000000000000 0 255 182 47
-0.212000000000000 -0.305000000000000 -2.252000000000000 0 255 170 50
-0.374000000000000 -0.313000000000000 -2.330000000000000 0 255 233 35
-0.321000000000000 -0.299000000000000 -2.250000000000000 0 255 119 62
-0.280000000000000 -0.296000000000000 -2.244000000000000 0 255 242 33
-0.241000000000000 -0.293000000000000 -2.247000000000000 0 255 204 42
-0.203000000000000 -0.292000000000000 -2.255000000000000 0 255 153 54
-0.405000000000000 -0.301000000000000 -2.321000000000000 0 204 255 24
-0.363000000000000 -0.298000000000000 -2.324000000000000 0 255 233 35
-0.310000000000000 -0.285000000000000 -2.241000000000000 0 255 136 58
-0.271000000000000 -0.283000000000000 -2.247000000000000 0 246 255 29
-0.232000000000000 -0.280000000000000 -2.245000000000000 0 255 242 33
-0.192000000000000 -0.277000000000000 -2.239000000000000 0 255 12 87
-0.395000000000000 -0.288000000000000 -2.326000000000000 0 212 255 25
-0.353000000000000 -0.285000000000000 -2.327000000000000 0 255 242 33
-0.302000000000000 -0.274000000000000 -2.256000000000000 0 255 187 46
-0.263000000000000 -0.272000000000000 -2.260000000000000 0 255 119 62
-0.222000000000000 -0.267000000000000 -2.241000000000000 0 255 89 69
-0.184000000000000 -0.266000000000000 -2.252000000000000 0 255 93 68
-0.381000000000000 -0.272000000000000 -2.303000000000000 0 204 255 24
-0.343000000000000 -0.272000000000000 -2.328000000000000 0 255 250 31
-0.295000000000000 -0.263000000000000 -2.273000000000000 0 255 250 31
-0.254000000000000 -0.259000000000000 -2.262000000000000 0 255 144 56
-0.213000000000000 -0.256000000000000 -2.255000000000000 0 255 170 50
-0.181000000000000 -0.264000000000000 -2.342000000000000 0 255 242 33
-0.374000000000000 -0.261000000000000 -2.327000000000000 0 195 255 23
-0.333000000000000 -0.259000000000000 -2.331000000000000 0 255 229 36
-0.292000000000000 -0.257000000000000 -2.333000000000000 0 255 250 31
-0.247000000000000 -0.250000000000000 -2.295000000000000 0 195 255 23
-0.211000000000000 -0.252000000000000 -2.334000000000000 0 221 255 26
-0.171000000000000 -0.250000000000000 -2.344000000000000 0 255 246 32
-0.360000000000000 -0.246000000000000 -2.309000000000000 0 195 255 23
-0.322000000000000 -0.246000000000000 -2.334000000000000 0 255 233 35
-0.280000000000000 -0.243000000000000 -2.327000000000000 0 255 255 30
-0.242000000000000 -0.243000000000000 -2.345000000000000 0 255 255 30
-0.200000000000000 -0.239000000000000 -2.335000000000000 0 246 255 29
-0.161000000000000 -0.238000000000000 -2.346000000000000 0 255 246 32
-0.349000000000000 -0.233000000000000 -2.310000000000000 0 212 255 25
-0.311000000000000 -0.233000000000000 -2.329000000000000 0 255 229 36
-0.271000000000000 -0.232000000000000 -2.340000000000000 0 238 255 28
-0.231000000000000 -0.229000000000000 -2.341000000000000 0 255 255 30
-0.189000000000000 -0.226000000000000 -2.332000000000000 0 246 255 29
-0.150000000000000 -0.226000000000000 -2.347000000000000 0 255 238 34
-0.338000000000000 -0.221000000000000 -2.313000000000000 0 212 255 25
-0.300000000000000 -0.220000000000000 -2.329000000000000 0 255 229 36
-0.260000000000000 -0.219000000000000 -2.340000000000000 0 238 255 28
-0.220000000000000 -0.217000000000000 -2.343000000000000 0 246 255 29
-0.179000000000000 -0.215000000000000 -2.339000000000000 0 255 255 30
-0.140000000000000 -0.213000000000000 -2.346000000000000 0 255 250 31
-0.405000000000000 -0.277000000000000 -2.355000000000000 0 255 250 31
-0.392000000000000 -0.266000000000000 -2.353000000000000 0 229 255 27
-0.379000000000000 -0.254000000000000 -2.347000000000000 0 246 255 29
-0.407000000000000 -0.244000000000000 -2.337000000000000 0 238 255 28
-0.366000000000000 -0.244000000000000 -2.351000000000000 0 246 255 29
-0.393000000000000 -0.233000000000000 -2.335000000000000 0 221 255 26
-0.354000000000000 -0.234000000000000 -2.351000000000000 0 238 255 28
-0.380000000000000 -0.223000000000000 -2.336000000000000 0 221 255 26
-0.340000000000000 -0.223000000000000 -2.348000000000000 0 255 246 32
-0.412000000000000 -0.215000000000000 -2.353000000000000 0 238 255 28
-0.367000000000000 -0.213000000000000 -2.334000000000000 0 238 255 28
-0.327000000000000 -0.213000000000000 -2.351000000000000 0 255 246 32
-0.101000000000000 -0.212000000000000 -2.323000000000000 0 204 255 24
-0.103000000000000 -0.229000000000000 -2.322000000000000 0 204 255 24
-0.105000000000000 -0.245000000000000 -2.321000000000000 0 212 255 25
-0.108000000000000 -0.261000000000000 -2.322000000000000 0 212 255 25
-0.110000000000000 -0.277000000000000 -2.322000000000000 0 212 255 25
-0.113000000000000 -0.293000000000000 -2.321000000000000 0 212 255 25
-0.116000000000000 -0.309000000000000 -2.320000000000000 0 221 255 26
-0.120000000000000 -0.325000000000000 -2.320000000000000 0 229 255 27
-0.120000000000000 -0.332000000000000 -2.256000000000000 0 204 255 24
-0.123000000000000 -0.345000000000000 -2.239000000000000 0 255 187 46
-0.126000000000000 -0.360000000000000 -2.235000000000000 0 255 157 53
-0.131000000000000 -0.376000000000000 -2.238000000000000 0 255 174 49
-0.100000000000000 -0.394000000000000 -2.324000000000000 0 255 233 35
-0.135000000000000 -0.391000000000000 -2.238000000000000 0 255 174 49
-0.105000000000000 -0.410000000000000 -2.328000000000000 0 255 242 33
-0.139000000000000 -0.407000000000000 -2.235000000000000 0 255 182 47
-0.109000000000000 -0.426000000000000 -2.327000000000000 0 255 242 33
-0.144000000000000 -0.422000000000000 -2.235000000000000 0 255 182 47
-0.114000000000000 -0.442000000000000 -2.328000000000000 0 255 238 34
-0.149000000000000 -0.438000000000000 -2.238000000000000 0 255 204 42
-0.119000000000000 -0.458000000000000 -2.324000000000000 0 255 233 35
-0.155000000000000 -0.456000000000000 -2.248000000000000 0 255 250 31
-0.125000000000000 -0.475000000000000 -2.326000000000000 0 255 238 34
-0.165000000000000 -0.486000000000000 -2.317000000000000 0 221 255 26
-0.130000000000000 -0.490000000000000 -2.325000000000000 0 255 238 34
-0.171000000000000 -0.501000000000000 -2.319000000000000 0 246 255 29
-0.136000000000000 -0.505000000000000 -2.322000000000000 0 255 242 33
-0.177000000000000 -0.517000000000000 -2.313000000000000 0 212 255 25
-0.142000000000000 -0.522000000000000 -2.321000000000000 0 255 238 34
-0.106000000000000 -0.527000000000000 -2.328000000000000 0 221 255 26
-0.183000000000000 -0.532000000000000 -2.311000000000000 0 238 255 28
-0.148000000000000 -0.539000000000000 -2.326000000000000 0 255 233 35
-0.113000000000000 -0.543000000000000 -2.330000000000000 0 229 255 27
-0.100000000000000 -0.257000000000000 -2.318000000000000 0 187 255 22
-0.101000000000000 -0.241000000000000 -2.321000000000000 0 195 255 23
-0.102000000000000 -0.224000000000000 -2.321000000000000 0 195 255 23
-0.178000000000000 -0.216000000000000 -2.322000000000000 0 229 255 27
-0.144000000000000 -0.219000000000000 -2.333000000000000 0 255 246 32
-0.109000000000000 -0.222000000000000 -2.337000000000000 0 204 255 24
-0.185000000000000 -0.230000000000000 -2.320000000000000 0 238 255 28
-0.151000000000000 -0.234000000000000 -2.331000000000000 0 255 238 34
-0.117000000000000 -0.236000000000000 -2.336000000000000 0 221 255 26
-0.194000000000000 -0.245000000000000 -2.326000000000000 0 238 255 28
-0.160000000000000 -0.249000000000000 -2.338000000000000 0 255 238 34
-0.125000000000000 -0.252000000000000 -2.345000000000000 0 212 255 25
-0.199000000000000 -0.256000000000000 -2.292000000000000 0 76 255 9
-0.168000000000000 -0.263000000000000 -2.336000000000000 0 255 238 34
-0.133000000000000 -0.266000000000000 -2.338000000000000 0 204 255 24
-0.201000000000000 -0.263000000000000 -2.229000000000000 0 255 68 74
-0.170000000000000 -0.269000000000000 -2.261000000000000 0 246 255 29
-0.142000000000000 -0.281000000000000 -2.345000000000000 0 212 255 25
-0.107000000000000 -0.284000000000000 -2.347000000000000 0 221 255 26
-0.210000000000000 -0.278000000000000 -2.240000000000000 0 255 148 55
-0.177000000000000 -0.280000000000000 -2.238000000000000 0 255 59 76
-0.147000000000000 -0.289000000000000 -2.295000000000000 0 136 255 16
-0.116000000000000 -0.298000000000000 -2.343000000000000 0 229 255 27
-0.218000000000000 -0.291000000000000 -2.236000000000000 0 255 199 43
-0.185000000000000 -0.294000000000000 -2.241000000000000 0 255 97 67
-0.153000000000000 -0.298000000000000 -2.251000000000000 0 255 136 58
-0.124000000000000 -0.312000000000000 -2.340000000000000 0 246 255 29
-0.225000000000000 -0.304000000000000 -2.228000000000000 0 255 182 47
-0.193000000000000 -0.307000000000000 -2.238000000000000 0 255 140 57
-0.161000000000000 -0.311000000000000 -2.250000000000000 0 255 131 59
-0.129000000000000 -0.317000000000000 -2.274000000000000 0 212 255 25
-0.234000000000000 -0.317000000000000 -2.225000000000000 0 255 191 45
-0.201000000000000 -0.320000000000000 -2.233000000000000 0 255 76 72
-0.169000000000000 -0.324000000000000 -2.245000000000000 0 255 195 44
-0.137000000000000 -0.329000000000000 -2.264000000000000 0 255 148 55
-0.107000000000000 -0.342000000000000 -2.335000000000000 0 229 255 27
-0.243000000000000 -0.330000000000000 -2.226000000000000 0 255 229 36
-0.210000000000000 -0.332000000000000 -2.227000000000000 0 255 102 66
-0.178000000000000 -0.337000000000000 -2.243000000000000 0 255 170 50
-0.146000000000000 -0.342000000000000 -2.260000000000000 0 255 153 54
-0.115000000000000 -0.351000000000000 -2.309000000000000 0 187 255 22
-0.250000000000000 -0.343000000000000 -2.218000000000000 0 255 212 40
-0.219000000000000 -0.346000000000000 -2.227000000000000 0 255 170 50
-0.186000000000000 -0.350000000000000 -2.238000000000000 0 255 161 52
-0.155000000000000 -0.354000000000000 -2.255000000000000 0 255 191 45
-0.121000000000000 -0.355000000000000 -2.248000000000000 0 255 178 48
-0.260000000000000 -0.357000000000000 -2.224000000000000 0 255 216 39
-0.227000000000000 -0.358000000000000 -2.223000000000000 0 255 191 45
-0.195000000000000 -0.362000000000000 -2.234000000000000 0 255 191 45
-0.164000000000000 -0.367000000000000 -2.251000000000000 0 255 199 43
-0.130000000000000 -0.369000000000000 -2.249000000000000 0 255 165 51
-0.102000000000000 -0.386000000000000 -2.340000000000000 0 255 255 30
-0.269000000000000 -0.369000000000000 -2.220000000000000 0 255 225 37
-0.237000000000000 -0.372000000000000 -2.222000000000000 0 255 191 45
-0.205000000000000 -0.375000000000000 -2.232000000000000 0 255 225 37
-0.173000000000000 -0.380000000000000 -2.249000000000000 0 255 195 44
-0.140000000000000 -0.381000000000000 -2.245000000000000 0 255 187 46
-0.111000000000000 -0.399000000000000 -2.338000000000000 0 255 250 31
-0.279000000000000 -0.382000000000000 -2.217000000000000 0 255 157 53
-0.246000000000000 -0.385000000000000 -2.223000000000000 0 255 178 48
-0.214000000000000 -0.387000000000000 -2.228000000000000 0 255 225 37
-0.183000000000000 -0.393000000000000 -2.248000000000000 0 255 182 47
-0.149000000000000 -0.394000000000000 -2.242000000000000 0 255 229 36
-0.120000000000000 -0.407000000000000 -2.305000000000000 0 255 216 39
-0.289000000000000 -0.396000000000000 -2.220000000000000 0 255 170 50
-0.256000000000000 -0.397000000000000 -2.220000000000000 0 255 187 46
-0.223000000000000 -0.400000000000000 -2.228000000000000 0 255 229 36
-0.192000000000000 -0.406000000000000 -2.246000000000000 0 255 204 42
-0.159000000000000 -0.406000000000000 -2.235000000000000 0 255 238 34
-0.128000000000000 -0.414000000000000 -2.273000000000000 0 255 178 48
-0.301000000000000 -0.412000000000000 -2.237000000000000 0 238 255 28
-0.266000000000000 -0.411000000000000 -2.223000000000000 0 255 136 58
-0.234000000000000 -0.414000000000000 -2.229000000000000 0 255 195 44
-0.202000000000000 -0.418000000000000 -2.243000000000000 0 255 191 45
-0.169000000000000 -0.419000000000000 -2.236000000000000 0 255 229 36
-0.137000000000000 -0.422000000000000 -2.245000000000000 0 255 165 51
-0.312000000000000 -0.426000000000000 -2.242000000000000 0 255 182 47
-0.278000000000000 -0.427000000000000 -2.243000000000000 0 255 191 45
-0.245000000000000 -0.428000000000000 -2.238000000000000 0 255 199 43
-0.212000000000000 -0.430000000000000 -2.240000000000000 0 255 221 38
-0.178000000000000 -0.431000000000000 -2.233000000000000 0 255 238 34
-0.148000000000000 -0.439000000000000 -2.268000000000000 0 255 165 51
-0.321000000000000 -0.438000000000000 -2.237000000000000 0 255 187 46
-0.289000000000000 -0.440000000000000 -2.241000000000000 0 255 161 52
-0.256000000000000 -0.442000000000000 -2.246000000000000 0 255 246 32
-0.224000000000000 -0.446000000000000 -2.257000000000000 0 255 238 34
-0.190000000000000 -0.447000000000000 -2.252000000000000 0 255 250 31
-0.159000000000000 -0.453000000000000 -2.273000000000000 0 255 165 51
-0.344000000000000 -0.467000000000000 -2.318000000000000 0 246 255 29
-0.299000000000000 -0.453000000000000 -2.244000000000000 0 255 161 52
-0.267000000000000 -0.455000000000000 -2.246000000000000 0 255 216 39
